ply
format ascii 1.0
element vertex 867
property float x
property float y
property float z
end_header
-390.002 206.033 857.969
-389.337 256.809 864.279
-381.991 61.218 859.856
-382.496 63.071 861.350
-380.420 64.266 859.030
-380.516 124.667 861.818
-379.608 126.076 861.621
-376.486 244.160 860.547
-376.486 244.160 860.547
-369.041 238.544 859.374
-361.830 87.841 861.153
-357.763 171.569 857.538
-354.858 75.677 857.041
-354.367 70.534 856.995
-354.654 189.891 857.840
-352.649 188.827 857.202
-352.924 73.267 857.888
-352.080 71.270 856.870
-352.080 71.270 856.870
-352.914 64.471 859.404
-351.433 190.909 857.065
-350.748 237.604 855.484
-350.748 237.604 855.484
-350.950 63.055 857.881
-350.371 185.698 857.319
-349.838 70.538 856.776
-350.457 64.363 858.420
-350.457 64.363 858.420
-349.498 186.387 857.530
-346.897 78.679 855.226
-346.566 191.217 856.764
-344.415 73.666 856.466
-344.247 84.615 856.380
-344.418 185.285 856.999
-344.418 185.285 856.999
-343.563 71.883 855.783
-343.354 188.722 855.831
-343.972 81.822 857.544
-342.661 85.294 856.313
-342.505 83.364 856.481
-341.928 65.912 855.540
-343.233 134.041 858.849
-342.334 126.122 857.286
-342.052 77.306 856.739
-341.774 176.378 856.658
-341.270 138.450 855.686
-340.892 71.878 856.955
-340.892 71.878 856.955
-340.431 138.110 856.015
-340.579 142.416 856.507
-340.249 85.455 856.528
-340.427 226.122 857.655
-339.829 173.843 856.853
-340.598 63.972 858.946
-340.598 63.972 858.946
-339.191 74.059 856.806
-339.191 74.059 856.806
-339.498 227.381 857.708
-338.771 155.680 856.809
-338.771 155.680 856.809
-337.999 179.841 856.554
-337.566 75.303 856.454
-337.299 71.859 856.336
-337.299 71.859 856.336
-336.602 83.563 856.651
-336.346 77.124 856.755
-336.215 227.647 857.254
-335.944 122.306 857.090
-335.869 188.351 856.904
-318.082 75.410 811.670
-318.082 75.410 811.670
-335.626 191.171 856.628
-335.542 181.659 857.045
-335.244 170.247 856.666
-336.190 196.891 859.418
-334.725 178.571 856.458
-334.683 69.986 856.343
-334.683 69.986 856.343
-335.039 156.620 857.315
-317.312 80.891 811.982
-334.705 75.423 856.515
-334.705 75.423 856.515
-334.593 82.198 856.274
-335.324 200.592 858.188
-334.786 227.529 857.136
-334.741 63.448 857.091
-333.654 198.969 856.444
-333.457 182.527 856.389
-333.142 185.584 855.682
-333.158 140.157 855.796
-333.298 70.935 856.481
-331.249 63.558 854.165
-331.513 205.724 857.503
-330.590 197.100 856.368
-330.537 83.503 856.456
-330.537 83.503 856.456
-330.324 147.415 855.912
-330.324 147.415 855.912
-329.662 190.323 854.678
-330.119 201.276 857.560
-330.323 198.540 858.229
-329.900 67.988 857.145
-329.900 67.988 857.145
-329.274 75.385 856.433
-328.925 84.896 855.754
-328.925 84.896 855.754
-328.806 185.889 857.006
-328.239 80.725 855.873
-328.239 80.725 855.873
-329.028 192.375 858.535
-327.643 73.149 856.504
-327.643 73.149 856.504
-328.004 225.355 858.206
-325.839 155.902 852.658
-325.839 155.902 852.658
-326.582 80.038 856.498
-326.257 81.030 855.806
-326.016 176.867 855.480
-326.378 196.396 856.517
-326.288 185.654 856.729
-326.007 201.502 856.293
-325.799 171.845 855.953
-325.842 75.409 856.248
-324.910 193.443 854.295
-324.910 193.443 854.295
-325.988 226.401 857.349
-325.988 226.401 857.349
-325.517 173.267 856.422
-325.775 204.454 857.532
-325.187 187.485 856.323
-325.524 197.650 858.165
-325.694 175.724 860.349
-325.694 175.724 860.349
-324.602 206.454 857.988
-321.953 65.544 851.516
-323.894 226.958 857.691
-322.902 85.240 855.249
-323.222 77.885 856.409
-323.065 73.329 856.132
-323.051 82.013 856.448
-323.331 196.149 858.171
-322.573 80.518 856.229
-322.062 198.398 856.107
-321.241 83.431 855.911
-321.241 83.431 855.911
-320.980 169.124 855.595
-320.763 64.369 858.561
-320.634 191.259 858.504
-319.746 145.617 856.268
-319.596 81.552 856.292
-319.596 81.552 856.292
-319.525 69.534 856.357
-319.658 206.798 856.815
-319.179 74.487 855.992
-356.236 82.992 955.364
-319.178 177.523 856.417
-319.473 224.923 857.578
-319.473 224.923 857.578
-318.759 72.334 855.649
-319.165 188.346 856.925
-319.000 139.026 856.670
-320.312 146.914 860.979
-318.601 206.451 856.545
-318.184 185.888 856.086
-317.762 198.867 855.098
-318.299 227.247 857.385
-317.568 71.744 855.621
-317.611 75.153 856.011
-317.611 75.153 856.011
-318.020 161.475 857.167
-318.405 152.663 858.844
-318.405 152.663 858.844
-317.413 202.963 856.348
-315.745 139.208 855.245
-316.454 208.335 857.190
-315.661 192.813 856.013
-316.592 196.195 858.566
-315.593 189.668 856.360
-315.327 68.979 855.951
-315.327 68.979 855.951
-315.889 226.805 857.706
-315.438 167.445 856.594
-315.097 83.358 855.977
-315.097 83.358 855.977
-315.097 83.358 855.977
-315.678 206.432 857.709
-314.831 77.686 856.328
-314.636 205.368 856.687
-313.997 186.168 856.554
-313.427 81.706 855.885
-313.646 85.054 856.564
-313.217 87.070 856.022
-313.217 87.070 856.022
-313.300 197.470 856.880
-313.300 197.470 856.880
-313.300 197.470 856.880
-313.065 156.030 856.229
-313.065 156.030 856.229
-311.756 200.356 854.935
-312.090 192.463 856.841
-312.153 176.121 857.052
-312.009 226.218 857.974
-310.832 81.363 856.275
-310.039 84.980 855.620
-310.291 195.787 857.121
-309.816 72.552 856.101
-310.012 192.499 857.264
-310.232 191.053 858.254
-309.527 182.087 856.948
-309.527 182.087 856.948
-309.273 83.696 856.566
-309.273 83.696 856.566
-308.451 154.182 855.358
-309.473 137.774 860.623
-307.562 70.488 855.403
-308.036 192.774 856.865
-307.721 74.216 856.062
-307.407 84.904 855.748
-307.702 198.059 856.880
-307.059 179.417 855.648
-307.377 204.946 857.185
-307.446 178.413 857.390
-307.118 200.676 857.286
-306.683 74.674 856.213
-305.913 78.390 854.891
-305.913 78.390 854.891
-306.299 141.265 856.922
-306.462 199.236 858.042
-307.045 132.685 859.749
-305.530 155.005 856.599
-304.917 75.150 855.427
-305.812 177.592 858.073
-304.907 197.773 856.777
-305.321 202.299 859.117
-304.815 194.886 857.754
-275.502 67.527 775.814
-304.200 74.433 856.619
-304.423 200.448 857.338
-304.423 200.448 857.338
-304.027 72.293 856.452
-304.049 83.277 856.989
-303.924 124.440 856.716
-303.739 165.087 856.601
-303.327 132.363 856.712
-302.746 173.204 856.666
-301.948 180.115 857.242
-301.973 201.748 857.642
-301.973 201.748 857.642
-302.336 64.539 858.855
-300.780 70.085 856.191
-300.868 168.602 856.628
-300.745 171.017 857.311
-300.760 198.727 858.198
-299.656 75.224 856.602
-298.607 69.377 855.596
-298.284 72.550 856.423
-298.284 72.550 856.423
-298.792 224.727 857.969
-298.792 224.727 857.969
-298.761 227.481 857.891
-297.510 67.230 855.864
-297.510 67.230 855.864
-298.392 190.455 859.507
-298.392 190.455 859.507
-297.694 178.176 857.658
-297.844 225.351 858.418
-297.844 225.351 858.418
-296.951 70.113 855.839
-297.591 226.320 858.686
-297.591 226.320 858.686
-296.343 180.742 855.121
-295.824 184.355 854.710
-296.888 175.877 857.902
-296.620 224.768 858.413
-296.404 173.448 859.564
-295.564 226.690 858.497
-294.975 69.154 856.763
-294.717 66.397 856.095
-292.387 226.586 858.814
-291.944 187.349 859.603
-290.769 227.496 858.534
-289.824 187.731 858.442
-289.824 187.731 858.442
-289.673 224.864 858.805
-289.673 224.864 858.805
-286.365 175.365 857.863
-285.885 172.701 857.912
-280.393 64.735 857.413
-275.204 65.427 855.414
-276.974 63.996 862.561
-275.632 63.250 863.139
-270.317 65.878 859.298
-271.244 61.775 863.215
-269.818 62.978 866.584
-267.399 66.825 859.121
-267.384 130.097 859.417
-267.170 154.720 859.269
-267.335 156.892 859.806
-267.335 156.892 859.806
-268.151 65.449 863.163
-266.813 199.786 860.088
-266.928 197.911 860.614
-267.113 99.426 861.494
-266.386 160.029 859.969
-266.648 103.846 860.925
-266.345 202.263 860.092
-266.340 114.403 861.158
-265.650 244.637 867.257
-266.868 68.260 880.589
-268.503 88.855 893.173
-275.148 153.197 925.466
-286.637 75.513 977.528
-285.648 258.760 986.064
-193.965 173.024 997.653
-192.891 128.491 996.394
-192.790 153.051 997.045
-191.350 191.182 996.125
-190.506 -49.093 992.350
-190.154 -36.355 990.460
-190.741 183.925 997.405
-190.741 183.925 997.405
-189.143 -122.367 989.792
-190.553 164.519 997.200
-190.753 204.838 999.394
-190.087 178.465 996.743
-190.087 178.465 996.743
-190.302 145.325 998.218
-190.057 161.356 997.375
-189.875 147.829 996.858
-189.492 118.585 995.799
-189.526 142.236 996.082
-189.352 125.836 996.290
-188.945 131.543 995.524
-187.387 -122.900 987.988
-187.363 -45.209 987.993
-186.715 -117.582 987.062
-185.510 -121.705 986.309
-185.222 128.420 995.537
-185.222 128.420 995.537
-182.490 -124.751 986.180
-184.073 51.830 995.795
-183.694 190.989 997.635
-182.629 161.410 997.653
-182.687 188.274 999.209
-181.979 130.842 996.632
-181.871 182.274 997.109
-181.987 184.962 997.814
-181.762 163.835 997.814
-179.738 -100.697 986.763
-181.699 191.439 998.081
-181.565 148.710 997.748
-180.627 9.219 992.728
-181.616 154.545 998.417
-181.368 151.214 997.540
-180.687 139.304 997.035
-180.620 112.117 996.902
-178.037 -121.637 987.009
-180.158 142.291 999.286
-178.782 -7.908 992.166
-176.880 -123.993 987.637
-177.699 4.400 992.664
-177.386 11.298 991.276
-178.085 133.601 997.009
-177.270 35.086 993.137
-177.378 45.420 994.647
-176.550 -21.831 991.197
-175.401 -7.874 991.194
-175.401 -7.874 991.194
-174.228 -101.152 985.818
-174.228 -101.152 985.818
-174.690 -100.054 989.684
-174.607 -7.248 991.505
-173.094 -101.645 987.207
-174.628 84.876 996.245
-173.126 -123.684 989.081
-172.682 -119.334 989.246
-172.762 -108.461 992.606
-171.537 -106.218 986.005
-173.122 57.549 995.754
-171.087 -105.502 988.158
-170.683 -115.581 986.143
-172.492 260.838 998.491
-171.349 -24.400 991.811
-171.729 137.532 997.753
-169.726 -122.609 987.378
-171.430 126.977 997.644
-169.880 118.244 996.651
-168.225 -123.638 987.449
-168.888 145.210 998.376
-167.886 124.514 996.924
-167.977 157.376 998.975
-167.977 157.376 998.975
-165.411 -119.627 987.264
-167.072 183.683 998.889
-167.156 165.959 999.494
-166.636 95.302 996.871
-164.399 97.729 997.689
-164.399 97.729 997.689
-161.856 -116.361 985.362
-161.954 -99.778 988.108
-163.292 188.054 1001.256
-163.059 187.914 1000.507
-161.811 185.800 1001.188
-160.505 45.378 994.836
-160.543 144.080 999.327
-160.620 154.010 999.853
-160.620 154.010 999.853
-158.255 -117.257 988.112
-157.605 -129.563 989.955
-156.585 -116.752 987.551
-158.368 213.547 1000.212
-157.057 86.347 995.880
-156.369 12.547 994.816
-156.095 246.455 1000.170
-154.819 6.449 993.910
-154.947 70.227 997.100
-154.947 70.227 997.100
-153.689 58.791 996.129
-154.285 239.789 1000.501
-154.285 239.789 1000.501
-151.893 -113.158 986.271
-153.153 55.093 995.834
-152.606 20.858 994.223
-150.080 -115.249 986.806
-151.991 224.502 1000.231
-151.854 222.825 1000.390
-151.599 229.256 1000.731
-150.139 14.268 992.300
-151.103 233.835 1000.221
-149.542 36.050 993.728
-150.037 45.435 998.271
-149.844 114.447 997.668
-147.903 23.850 994.826
-148.585 259.329 999.840
-148.585 259.329 999.840
-147.838 43.753 994.784
-146.264 -102.883 985.472
-147.296 -1.691 994.841
-147.447 5.810 996.993
-144.273 -108.081 986.888
-145.096 -6.594 992.751
-144.980 7.997 993.149
-146.004 263.261 1000.549
-144.980 42.447 995.549
-145.279 256.335 999.578
-143.918 1.294 993.610
-144.747 216.152 1000.696
-142.466 -110.193 987.513
-142.387 -110.163 987.243
-141.616 -106.295 986.704
-143.401 266.636 1000.270
-142.067 39.644 993.917
-142.067 39.644 993.917
-142.469 123.535 997.660
-141.655 16.100 993.925
-141.655 16.100 993.925
-141.668 223.683 1001.570
-141.668 223.683 1001.570
-140.391 -1.602 992.689
-140.285 9.509 993.074
-139.187 -27.997 988.265
-138.792 -103.625 986.509
-140.810 259.401 1001.153
-139.840 4.999 994.375
-139.871 8.480 994.840
-139.244 2.804 993.196
-139.244 2.804 993.196
-138.880 6.242 993.521
-137.575 -0.658 992.438
-137.789 261.744 1000.440
-137.536 126.271 998.788
-137.536 126.271 998.788
-137.155 174.767 999.627
-137.155 174.767 999.627
-136.976 138.796 999.650
-136.705 118.227 998.560
-136.799 135.021 999.333
-136.012 -2.197 993.600
-136.012 -2.197 993.600
-136.867 131.311 999.978
-136.656 149.421 999.632
-136.709 172.949 1000.611
-136.645 176.125 1000.484
-136.638 179.226 1001.907
-136.638 179.226 1001.907
-135.131 29.623 995.183
-133.181 -88.812 986.942
-133.181 -88.812 986.942
-134.171 46.505 995.190
-132.742 -88.675 985.404
-132.742 -88.675 985.404
-134.437 134.159 999.938
-134.437 134.159 999.938
-133.928 31.836 996.359
-134.626 178.903 1001.741
-133.644 27.661 994.946
-133.027 -1.152 992.418
-133.012 16.148 992.934
-133.012 16.148 992.934
-132.085 24.558 995.301
-132.085 24.558 995.301
-130.805 43.392 996.073
-130.635 33.355 995.625
-130.456 30.976 995.093
-130.427 23.538 995.429
-128.336 -89.732 987.572
-128.838 -85.839 994.114
-127.923 112.063 999.968
-127.923 112.063 999.968
-127.780 189.011 1002.032
-125.614 -87.029 986.443
-126.899 108.841 998.340
-126.871 115.810 999.411
-126.871 115.810 999.411
-125.409 125.352 999.773
-125.813 187.570 1004.335
-124.807 62.164 996.473
-122.927 242.713 1001.624
-122.927 242.713 1001.624
-122.855 245.522 1001.335
-122.855 245.522 1001.335
-122.484 248.191 1000.922
-122.104 239.069 1000.467
-119.974 -75.451 991.660
-120.298 37.882 995.797
-120.158 249.102 1000.978
-119.898 266.949 999.891
-119.538 238.796 1000.690
-118.599 56.899 996.204
-118.157 59.666 996.718
-117.005 69.001 996.854
-117.546 236.188 1001.613
-117.546 236.188 1001.613
-117.078 255.398 1001.069
-116.751 245.060 1002.507
-116.243 117.092 1000.245
-116.120 235.031 1001.813
-114.368 34.720 994.454
-114.487 245.259 1002.557
-113.118 33.612 995.296
-113.554 233.947 1001.077
-113.007 38.136 996.651
-112.820 44.445 996.625
-112.876 52.624 998.002
-112.189 23.184 994.879
-112.170 9.506 995.023
-112.206 11.686 995.886
-112.026 17.617 995.237
-111.964 5.224 994.704
-111.477 -3.358 993.444
-110.880 -10.886 990.973
-111.286 42.404 996.121
-111.880 237.028 1001.647
-111.730 239.734 1000.889
-111.756 196.783 1001.852
-110.465 18.714 994.518
-110.640 44.210 996.159
-111.117 257.380 1000.571
-111.211 255.765 1001.485
-110.557 50.329 995.985
-110.514 52.209 995.989
-110.514 52.209 995.989
-110.977 244.078 1000.845
-110.948 246.209 1001.272
-110.114 -7.967 993.653
-110.294 36.048 995.560
-110.864 231.182 1001.220
-110.821 240.682 1001.080
-109.997 5.198 993.819
-109.981 16.650 993.837
-110.783 249.015 1001.156
-110.783 249.015 1001.156
-109.931 3.412 994.333
-109.931 3.412 994.333
-110.034 25.296 995.286
-110.479 125.688 999.967
-110.460 126.098 1000.018
-109.846 -1.298 995.369
-110.492 194.512 1001.896
-109.426 37.378 995.390
-109.975 256.877 1000.824
-109.975 256.877 1000.824
-109.600 246.572 1000.948
-109.720 241.461 1002.142
-109.330 236.563 1000.886
-109.513 189.006 1002.762
-108.464 23.737 994.915
-108.110 14.315 994.140
-108.675 249.035 1001.048
-108.675 249.035 1001.048
-108.677 256.107 1001.638
-108.355 257.386 1000.483
-108.254 248.032 1001.537
-107.545 174.049 1001.090
-107.512 251.321 1000.945
-106.918 22.909 995.983
-106.648 3.358 995.676
-106.336 52.330 996.687
-105.626 18.902 993.607
-105.989 64.120 997.778
-105.622 25.442 994.658
-105.486 15.901 994.817
-105.885 252.966 1000.638
-104.968 -1.229 993.639
-104.968 -1.229 993.639
-104.740 -10.780 992.964
-105.647 239.018 1001.709
-105.846 249.518 1003.562
-104.731 46.206 995.034
-105.009 72.571 997.948
-104.318 2.798 994.620
-104.318 2.798 994.620
-104.772 243.214 1000.273
-104.764 254.585 1002.346
-104.764 254.585 1002.346
-103.909 25.977 994.661
-104.024 55.681 997.150
-103.762 42.387 995.687
-103.646 30.591 994.701
-103.646 30.591 994.701
-103.574 15.223 994.149
-103.786 38.028 996.229
-103.818 64.144 997.033
-103.818 64.144 997.033
-103.322 24.368 994.712
-103.173 16.975 994.546
-102.894 19.739 994.789
-102.375 -3.114 992.919
-102.138 -9.261 991.855
-102.178 222.658 1001.053
-102.063 218.416 1000.904
-102.063 218.416 1000.904
-101.359 63.809 996.293
-101.824 199.158 1001.449
-101.824 199.158 1001.449
-101.650 193.593 1000.850
-101.650 193.593 1000.850
-100.802 11.173 994.555
-100.802 11.173 994.555
-100.731 30.708 994.996
-101.299 178.159 1000.948
-100.662 -85.042 996.448
-100.363 235.462 1001.530
-99.295 10.367 994.717
-98.032 -123.610 986.441
-99.215 180.475 1000.645
-98.894 251.227 1001.338
-98.255 66.877 997.998
-97.847 248.427 1001.125
-97.847 248.427 1001.125
-97.712 238.456 999.955
-97.551 249.726 1000.707
-97.819 264.124 1009.609
-96.705 247.146 999.912
-96.532 179.726 1000.737
-96.420 174.464 1000.565
-96.420 174.464 1000.565
-92.523 -121.657 982.689
-92.129 55.710 996.181
-92.129 55.710 996.181
-92.008 35.951 995.126
-92.117 48.813 996.487
-92.117 48.813 996.487
-91.491 22.736 994.586
-91.283 34.607 994.601
-84.911 -69.920 989.778
-83.733 -67.251 986.528
65.178 247.072 875.765
70.982 -48.082 868.502
96.328 98.714 874.547
96.328 98.714 874.547
102.642 98.313 871.843
102.642 98.313 871.843
106.520 104.440 872.248
111.607 89.886 871.610
111.607 89.886 871.610
114.512 87.697 870.859
115.865 251.225 866.841
117.270 91.158 871.185
117.270 91.158 871.185
117.606 112.553 873.755
118.386 88.064 871.121
120.121 -11.203 867.903
121.346 111.003 870.153
124.219 98.277 870.874
126.246 115.722 873.134
126.246 115.722 873.134
125.836 -51.191 865.407
132.660 120.772 871.343
135.055 116.069 872.397
149.438 248.229 874.689
157.685 134.455 873.437
162.611 248.588 874.694
163.402 63.406 872.905
163.402 63.406 872.905
167.509 64.666 870.106
174.193 246.714 873.596
180.468 83.254 872.566
186.531 129.470 872.950
190.346 62.090 870.776
199.737 151.742 874.255
199.737 151.742 874.255
199.420 -51.729 863.233
202.003 156.301 873.644
202.138 112.113 873.521
201.871 99.520 871.945
204.259 94.676 872.269
205.601 103.639 872.538
205.601 103.639 872.538
206.331 109.617 873.545
207.140 100.844 872.535
207.140 100.844 872.535
207.632 161.440 873.751
207.349 34.223 870.477
208.277 103.849 871.523
209.215 160.293 873.033
209.215 160.293 873.033
208.874 35.511 869.705
210.047 155.688 873.106
209.293 51.837 869.994
209.899 47.766 870.658
210.574 161.430 873.001
210.574 161.430 873.001
210.051 39.959 870.262
210.884 129.597 872.777
211.190 117.219 872.939
211.190 117.219 872.939
210.432 42.698 869.712
210.495 45.132 869.891
210.867 56.384 870.665
210.584 33.925 868.960
211.797 144.335 873.435
211.300 34.703 869.528
211.441 43.880 870.116
211.441 43.880 870.116
212.989 52.539 870.216
212.989 52.539 870.216
213.469 68.692 870.575
213.909 109.174 872.367
213.484 40.761 869.823
213.874 48.747 870.786
215.358 154.794 873.181
215.664 61.101 872.233
215.203 90.676 869.298
215.474 47.981 870.343
215.616 45.190 870.666
215.578 42.837 869.972
215.555 34.012 869.741
216.517 107.090 873.315
216.223 56.023 870.849
216.342 85.131 871.071
216.688 91.244 871.408
216.743 44.001 870.705
217.434 132.484 872.951
217.434 132.484 872.951
217.014 58.869 870.733
217.114 115.140 870.975
217.112 47.962 870.322
217.407 129.279 871.159
217.265 40.176 870.209
217.265 40.176 870.209
217.231 55.054 870.028
217.348 33.969 869.969
217.348 33.969 869.969
217.770 94.271 871.352
217.988 92.478 870.813
218.533 123.212 872.654
218.765 131.068 873.444
218.765 131.068 873.444
218.801 133.863 873.303
218.863 82.110 873.106
218.863 82.110 873.106
218.470 110.360 871.371
218.470 110.360 871.371
219.173 148.483 872.535
218.554 49.717 869.044
218.756 69.071 869.636
218.490 34.505 868.566
219.550 40.479 869.271
220.819 151.803 872.994
220.408 89.072 870.875
220.694 55.611 871.302
221.509 147.524 874.354
221.249 135.152 872.939
221.249 135.152 872.939
221.249 135.152 872.939
221.687 155.998 873.652
222.030 101.527 871.637
223.258 96.484 871.904
223.847 152.364 873.012
223.609 130.494 871.762
224.415 147.725 873.411
224.527 87.045 872.544
224.672 110.514 872.366
224.989 136.113 873.405
224.989 136.113 873.405
224.303 122.946 870.595
225.141 82.010 872.705
224.659 98.739 870.431
225.633 132.758 873.180
214.541 89.771 829.634
225.050 69.002 870.205
225.050 69.002 870.205
226.304 97.475 871.623
226.359 48.562 869.862
227.892 79.845 873.540
227.304 91.499 870.993
227.912 116.756 871.462
227.912 116.756 871.462
227.290 47.846 868.775
227.706 59.608 869.339
228.634 135.865 872.428
228.621 110.353 871.844
227.991 43.658 868.887
229.307 109.311 872.106
228.971 61.097 870.408
228.971 61.097 870.408
229.360 82.738 869.045
231.338 249.307 875.094
231.305 109.100 869.480
233.030 247.711 874.752
232.154 85.396 871.027
232.154 85.396 871.027
232.084 85.323 870.277
232.084 85.323 870.277
242.756 251.776 872.252
245.789 248.319 869.938
248.494 249.403 864.715
252.529 246.267 868.552
256.769 246.282 868.604
258.775 246.646 870.124
258.775 246.646 870.124
259.451 243.027 870.719
259.206 144.565 867.678
260.643 242.329 870.807
260.927 211.339 869.769
256.670 -49.813 853.077
261.675 243.759 869.611
256.464 -49.717 851.421
263.383 210.883 870.772
262.036 94.460 865.965
263.301 248.124 867.604
263.701 206.808 868.631
262.531 53.023 863.640
262.048 -11.641 859.731
266.050 204.446 871.090
263.441 -21.549 861.419
263.885 -12.230 861.975
265.205 49.005 865.799
265.396 51.281 865.627
265.333 55.147 865.410
267.792 202.119 871.810
266.920 213.629 868.885
264.731 -49.105 860.682
266.211 53.138 865.234
267.211 150.516 867.814
265.216 -11.501 861.313
266.553 49.592 865.548
267.911 248.982 869.886
265.959 -45.760 862.434
265.831 -9.962 861.255
267.053 -38.551 861.024
269.821 146.697 867.829
268.502 -8.666 862.775
271.343 142.322 868.974
268.655 -44.833 859.965
269.703 -40.385 861.474
