ply
format ascii 1.0
element vertex 877
property float x
property float y
property float z
end_header
-260.791 138.916 573.705
-260.154 172.660 577.506
-255.752 42.612 575.674
-256.095 43.916 576.693
-255.157 150.493 575.918
-254.634 44.607 574.968
-254.483 84.766 576.352
-253.844 85.672 576.144
-251.194 163.933 574.151
-251.194 163.933 574.151
-246.020 160.021 572.880
-243.933 45.436 572.285
-241.709 158.743 571.454
-241.508 60.210 574.775
-238.384 115.498 571.370
-236.642 52.128 571.524
-236.330 48.655 571.521
-236.153 127.613 571.192
-234.767 126.835 570.638
-235.322 50.454 572.004
-234.732 49.127 571.260
-234.732 49.127 571.260
-235.349 44.657 573.099
-233.914 128.191 570.442
-233.277 159.007 568.948
-233.277 159.007 568.948
-233.975 43.694 571.927
-233.195 124.737 570.580
-233.173 48.617 571.040
-233.641 44.512 572.266
-233.641 44.512 572.266
-232.588 125.180 570.658
-232.086 130.175 569.872
-231.097 53.947 569.716
-230.532 128.327 569.888
-229.385 50.661 570.402
-229.235 57.900 570.249
-229.063 124.379 569.945
-229.063 124.379 569.945
-228.790 49.485 569.882
-228.307 126.621 569.046
-229.066 56.028 571.056
-228.133 58.323 570.089
-228.031 57.047 570.206
-227.684 45.465 569.665
-228.409 90.532 571.509
-227.812 85.214 570.463
-227.734 53.052 570.390
-227.240 118.527 569.566
-226.967 93.605 569.096
-226.945 49.456 570.493
-226.945 49.456 570.493
-226.629 122.327 569.817
-226.431 93.178 569.341
-226.527 96.016 569.660
-226.455 58.431 570.052
-226.181 151.271 569.809
-225.920 116.743 569.616
-226.776 44.247 571.885
-226.776 44.247 571.885
-225.752 50.909 570.243
-225.752 50.909 570.243
-225.537 152.077 569.776
-225.233 104.772 569.634
-225.233 104.772 569.634
-224.612 120.773 569.201
-224.235 94.103 568.736
-224.490 123.933 569.435
-224.624 51.693 569.886
-224.460 49.358 569.833
-224.460 49.358 569.833
-223.929 57.160 569.886
-223.695 136.501 569.672
-223.772 52.901 569.986
-223.263 152.195 569.239
-223.365 82.753 569.854
-223.123 126.329 569.242
-210.857 51.423 538.036
-210.857 51.423 538.036
-222.942 128.197 569.011
-222.923 121.888 569.375
-222.747 114.354 569.178
-223.343 131.968 570.928
-222.367 119.814 568.948
-222.635 48.178 569.635
-222.635 48.178 569.635
-222.649 105.359 569.708
-210.313 55.026 538.156
-222.628 51.807 569.700
-222.628 51.807 569.700
-222.535 56.255 569.489
-222.738 134.327 570.024
-222.274 152.100 569.059
-222.700 43.857 570.199
-221.940 136.833 568.642
-221.940 136.833 568.642
-222.548 135.250 570.410
-221.568 133.254 568.715
-221.471 122.443 568.770
-221.227 124.503 568.221
-221.387 94.451 568.663
-221.209 83.965 568.341
-221.670 48.810 569.617
-221.199 127.929 569.295
-220.262 43.882 567.955
-220.083 137.663 569.252
-219.455 131.984 568.465
-219.726 57.076 569.320
-219.726 57.076 569.320
-219.396 99.265 568.471
-219.396 99.265 568.471
-218.817 127.510 567.287
-219.125 134.752 569.212
-219.290 132.902 569.725
-219.327 46.854 569.845
-219.327 46.854 569.845
-218.869 51.731 569.262
-218.608 57.952 568.727
-218.608 57.952 568.727
-218.731 110.997 569.210
-218.457 136.952 568.888
-218.265 124.549 568.868
-218.148 55.183 568.793
-218.148 55.183 568.793
-218.412 128.841 569.882
-218.107 99.036 570.140
-217.746 50.252 569.207
-217.746 50.252 569.207
-217.621 150.520 569.368
-216.263 104.733 565.899
-216.263 104.733 565.899
-192.546 129.875 504.509
-216.991 54.805 569.075
-216.760 55.444 568.576
-216.354 118.552 567.700
-216.552 131.463 568.284
-216.292 134.771 568.089
-216.218 115.260 568.037
-216.496 51.713 568.896
-217.682 89.512 572.078
-215.530 129.487 566.684
-215.530 129.487 566.684
-216.215 151.200 568.626
-216.215 151.200 568.626
-216.027 116.179 568.335
-216.135 136.716 568.903
-215.760 125.549 568.143
-215.979 132.264 569.354
-216.174 117.819 571.019
-216.174 117.819 571.019
-215.317 138.054 569.107
-213.803 45.152 565.463
-214.701 128.068 568.372
-214.773 151.546 568.713
-214.430 58.182 567.936
-214.683 53.315 568.810
-214.575 50.356 568.622
-214.554 56.042 568.794
-214.464 131.280 569.207
-214.219 55.087 568.607
-213.586 132.646 567.727
-213.513 134.044 567.691
-213.909 127.686 568.829
-213.405 125.519 568.274
-213.298 56.957 568.293
-213.298 56.957 568.293
-212.905 113.385 567.491
-213.034 44.395 570.197
-212.637 127.956 569.314
-212.116 97.909 568.020
-212.172 55.695 568.456
-212.172 55.695 568.456
-212.150 47.788 568.569
-211.912 138.162 567.986
-211.898 51.045 568.264
-238.371 57.380 639.260
-211.653 118.879 567.882
-211.742 150.105 568.368
-211.742 150.105 568.368
-211.608 49.632 568.011
-211.616 126.032 568.145
-211.623 93.558 568.289
-212.510 98.935 571.216
-211.185 137.909 567.736
-210.937 124.411 567.516
-210.605 132.949 566.721
-210.931 151.601 568.148
-210.788 49.240 567.911
-210.808 51.508 568.150
-210.808 51.508 568.150
-210.911 108.260 568.441
-211.207 102.491 569.665
-211.207 102.491 569.665
-210.375 135.601 567.544
-209.359 93.689 567.071
-209.707 139.133 568.018
-209.200 128.863 567.279
-209.851 131.120 569.064
-209.153 126.844 567.513
-209.219 47.565 567.937
-209.219 47.565 567.937
-209.284 151.248 568.223
-209.098 112.239 567.802
-209.061 56.866 567.910
-209.061 56.866 567.910
-209.061 56.866 567.910
-209.183 137.877 568.333
-208.896 53.116 568.174
-208.465 137.139 567.578
-208.454 132.541 567.761
-208.141 136.058 567.417
-208.064 124.532 567.559
-207.908 55.798 567.730
-208.070 57.935 568.215
-207.752 59.324 567.777
-207.752 59.324 567.777
-207.096 127.617 565.990
-207.573 131.901 567.684
-207.573 131.901 567.684
-207.573 131.901 567.684
-207.495 104.679 567.476
-207.495 104.679 567.476
-206.484 133.790 566.222
-206.756 128.578 567.615
-206.826 117.895 567.844
-206.625 150.805 568.155
-206.124 55.564 567.817
-205.568 57.921 567.297
-205.510 130.770 567.655
-205.442 49.759 567.682
-205.310 128.685 567.723
-205.493 127.646 568.464
-205.014 121.760 567.570
-205.014 121.760 567.570
-205.253 125.170 568.340
-205.055 57.055 567.907
-205.055 57.055 567.907
-204.327 103.385 566.591
-205.081 92.759 570.314
-203.889 48.393 567.061
-203.959 128.799 567.334
-204.001 50.822 567.508
-203.758 57.857 567.204
-203.728 132.219 567.308
-203.633 86.414 567.097
-203.318 119.958 566.538
-203.498 136.717 567.462
-203.594 119.337 567.752
-203.269 122.972 567.188
-203.323 133.944 567.526
-203.293 51.087 567.549
-202.743 53.542 566.563
-202.743 53.542 566.563
-202.888 94.892 567.592
-202.884 132.987 568.013
-203.441 89.268 569.629
-202.329 103.907 567.237
-202.060 51.453 566.863
-202.480 118.789 568.114
-201.817 131.970 567.065
-202.097 135.025 568.641
-201.752 130.158 567.714
-181.453 45.898 510.958
-201.583 50.952 567.643
-201.479 133.751 567.391
-201.479 133.751 567.391
-201.468 49.540 567.532
-201.464 56.763 567.835
-201.294 83.805 567.397
-201.073 110.544 567.045
-200.862 89.035 567.295
-200.741 132.805 567.674
-200.382 115.833 566.987
-200.842 129.791 569.224
-199.834 120.325 567.303
-199.798 134.582 567.428
-199.798 134.582 567.428
-200.346 44.410 569.116
-199.241 48.071 567.144
-199.098 112.826 566.851
-199.024 114.362 567.316
-198.978 132.592 567.745
-198.464 51.434 567.322
-197.746 47.596 566.593
-197.521 49.697 567.112
-197.521 49.697 567.112
-197.581 149.602 567.316
-197.581 149.602 567.316
-197.552 151.415 567.241
-197.742 130.508 568.035
-196.988 46.241 566.691
-196.988 46.241 566.691
-197.382 127.152 568.532
-197.382 127.152 568.532
-196.921 119.042 567.306
-196.934 150.009 567.556
-196.934 150.009 567.556
-196.618 48.034 566.656
-196.765 150.626 567.724
-196.765 150.626 567.724
-195.951 120.799 565.427
-195.594 123.122 565.106
-196.372 117.542 567.427
-196.101 149.596 567.483
-195.376 150.844 567.460
-195.262 47.450 567.139
-195.084 45.644 566.679
-195.437 119.701 567.872
-194.287 149.124 569.063
-194.287 149.124 569.063
-193.206 150.754 567.468
-192.990 124.994 568.216
-192.104 151.294 567.181
-191.508 150.234 567.081
-191.526 125.246 567.269
-191.526 125.246 567.269
-191.367 149.540 567.319
-191.367 149.540 567.319
-190.240 146.953 567.080
-189.192 117.054 566.737
-188.834 115.484 566.683
-185.771 157.482 567.146
-185.771 157.482 567.146
-185.311 44.431 566.652
-184.514 157.272 566.807
-181.757 44.853 564.942
-182.999 44.052 569.908
-178.454 45.149 567.271
-179.110 42.533 570.007
-178.602 162.845 569.516
-177.241 161.353 567.702
-176.610 139.116 567.150
-178.166 43.306 572.219
-176.446 45.867 566.915
-176.359 87.217 566.835
-176.185 103.284 566.616
-176.301 104.691 566.990
-176.301 104.691 566.990
-175.994 74.560 566.746
-175.980 130.829 567.143
-175.980 130.829 567.143
-175.883 132.769 566.933
-175.966 131.556 567.306
-176.006 160.421 567.623
-176.243 67.107 568.402
-175.840 159.508 567.592
-175.648 106.767 567.015
-175.908 70.042 567.944
-175.550 134.448 566.870
-175.684 76.956 568.031
-175.673 133.668 568.230
-175.560 163.623 569.176
-176.450 108.678 573.105
-175.889 140.978 572.093
-174.761 162.559 569.219
-175.067 162.254 571.511
-176.256 46.803 581.591
-177.446 60.313 590.252
-178.778 76.787 598.669
-182.131 102.876 612.579
-190.549 52.004 649.809
-189.682 173.156 654.761
-130.795 174.623 658.589
-129.432 174.510 657.843
-127.917 115.617 657.888
-127.194 86.458 657.012
-127.121 102.584 657.405
-126.139 127.554 656.615
-125.655 -30.217 654.501
-125.374 -21.657 653.056
-126.034 170.504 656.721
-125.746 122.785 657.497
-125.746 122.785 657.497
-124.748 -78.254 652.789
-125.620 110.088 657.368
-125.226 72.680 655.397
-125.746 136.626 658.798
-125.302 119.210 657.004
-125.302 119.210 657.004
-125.470 97.473 658.117
-125.293 107.990 657.479
-125.174 99.102 657.140
-124.917 79.929 656.433
-124.934 95.437 656.586
-124.207 17.818 653.343
-124.819 84.728 656.735
-124.547 88.404 656.192
-123.560 -78.603 651.435
-123.493 -27.495 651.209
-124.500 169.037 657.497
-123.106 -75.148 650.755
-122.619 58.184 655.530
-122.058 86.318 656.009
-122.058 86.318 656.009
-121.640 79.058 656.287
-120.257 -79.724 649.863
-121.290 36.288 656.193
-122.939 129.470 667.631
-121.032 127.341 657.275
-120.326 107.961 657.276
-120.373 125.551 658.333
-119.886 87.962 656.563
-119.813 121.603 656.830
-119.891 123.393 657.314
-119.744 109.566 657.329
-118.414 -63.981 650.068
-119.702 127.616 657.483
-119.619 99.629 657.309
-119.001 8.143 654.023
-119.660 103.433 657.779
-119.484 101.271 657.146
-119.027 93.468 656.774
-118.991 75.628 656.733
-117.293 -77.775 650.208
-118.689 95.439 658.310
-117.757 -2.992 653.521
-116.513 -79.229 650.547
-117.033 5.065 653.787
-116.829 9.459 652.841
-117.295 89.668 656.644
-116.761 25.015 654.102
-116.849 31.726 655.169
-116.261 -12.117 652.745
-116.444 -69.475 657.593
-115.497 -3.032 652.677
-115.497 -3.032 652.677
-114.716 -64.216 649.071
-114.716 -64.216 649.071
-115.057 -63.575 651.809
-114.974 -2.669 652.865
-113.968 -64.556 649.977
-114.996 57.693 656.016
-114.015 -79.050 651.341
-113.727 -76.275 651.451
-113.788 -69.076 653.739
-112.923 -67.557 649.066
-113.981 39.879 655.596
-112.626 -67.008 650.501
-112.357 -73.696 649.132
-113.545 172.976 657.199
-112.793 -13.823 652.890
-113.051 92.238 656.806
-111.726 -78.287 649.941
-112.851 85.337 656.723
-111.447 -64.476 649.343
-111.813 79.586 655.968
-110.725 -78.960 649.906
-111.155 97.273 657.071
-110.479 83.717 656.029
-110.556 105.190 657.445
-110.556 105.190 657.445
-110.531 120.347 657.643
-108.844 -76.326 649.609
-109.942 122.445 657.288
-110.013 110.782 657.764
-109.659 64.520 655.993
-108.170 66.120 656.433
-108.170 66.120 656.433
-106.451 -74.104 648.053
-106.537 -63.326 649.966
-107.448 125.219 658.776
-107.285 125.138 658.233
-106.925 127.649 657.049
-106.462 123.727 658.658
-105.562 31.847 654.296
-105.603 96.452 657.316
-105.656 102.963 657.673
-105.656 102.963 657.673
-104.079 -74.796 649.800
-104.864 57.139 654.851
-105.296 158.538 658.279
-103.642 -82.697 651.001
-102.949 -74.333 649.266
-104.156 141.877 657.762
-103.263 58.673 654.780
-102.809 10.384 654.088
-103.118 157.627 658.005
-102.642 163.375 657.595
-102.180 50.832 655.219
-101.773 6.388 653.381
-101.361 174.236 651.946
-101.862 48.175 655.516
-101.862 48.175 655.516
-101.027 40.629 654.809
-101.434 159.055 657.720
-101.434 159.055 657.720
-99.821 -72.010 648.125
-100.683 38.084 654.629
-100.854 174.450 657.048
-100.286 15.927 653.417
-98.634 -73.520 648.454
-99.911 149.007 657.443
-99.104 57.303 652.658
-99.822 147.895 657.556
-99.661 152.055 657.797
-98.671 11.292 652.081
-99.319 155.112 657.382
-98.995 176.108 656.494
-98.259 25.711 652.951
-98.603 31.960 656.093
-98.470 77.043 655.618
-97.176 17.745 653.636
-97.645 171.733 656.987
-97.645 171.733 656.987
-97.133 30.734 653.594
-96.059 -65.181 647.209
-96.780 1.006 653.655
-97.324 150.493 658.512
-96.676 128.296 657.473
-94.190 -76.038 642.107
-94.750 -68.622 648.105
-95.306 -2.206 652.088
-95.232 7.309 652.354
-95.925 174.366 657.322
-95.244 29.822 654.000
-95.525 177.730 657.143
-95.447 169.751 656.644
-94.528 2.942 652.619
-95.106 143.449 657.439
-93.629 -58.516 647.786
-93.564 -70.112 648.484
-93.509 -70.079 648.287
-92.986 -67.483 647.842
-94.206 176.459 657.040
-93.296 28.009 652.701
-93.296 28.009 652.701
-93.585 82.800 655.293
-93.023 12.633 652.700
-93.023 12.633 652.700
-93.928 -89.643 662.386
-93.065 148.364 657.894
-93.065 148.364 657.894
-92.446 35.914 653.631
-92.182 1.033 651.799
-92.108 8.331 652.038
-91.111 -65.744 647.555
-92.487 171.758 657.520
-91.820 5.386 652.922
-91.841 7.677 653.239
-92.467 151.304 657.978
-91.420 3.932 652.079
-91.420 3.932 652.079
-92.121 -1.884 657.291
-91.178 6.203 652.274
-90.410 -7.420 652.110
-90.315 1.606 651.491
-89.871 -15.431 650.250
-90.480 173.245 656.883
-90.307 84.661 655.793
-90.307 84.661 655.793
-90.062 116.317 656.352
-90.062 116.317 656.352
-89.942 92.834 656.367
-89.761 79.339 655.622
-89.823 90.364 656.139
-89.280 0.644 652.202
-89.280 0.644 652.202
-89.871 87.944 656.594
-89.468 25.859 653.835
-89.731 99.753 656.342
-89.185 23.579 652.725
-89.769 115.165 657.006
-89.726 117.237 656.913
-89.728 119.293 657.898
-89.728 119.293 657.898
-88.697 21.474 653.221
-87.380 -55.984 647.510
-87.380 -55.984 647.510
-88.059 32.508 653.163
-87.083 -55.913 646.427
-87.083 -55.913 646.427
-88.257 89.809 656.437
-88.257 89.809 656.437
-87.908 22.902 653.984
-88.399 119.005 657.712
-87.712 20.163 652.991
-87.294 1.311 651.228
-87.284 12.623 651.571
-87.284 12.623 651.571
-86.681 18.137 653.159
-86.681 18.137 653.159
-85.837 30.422 653.628
-85.721 23.878 653.307
-85.596 22.349 652.917
-85.574 17.542 653.134
-84.172 -56.585 647.693
-84.542 -54.102 652.280
-84.067 68.627 655.304
-83.940 75.337 656.149
-83.940 75.337 656.149
-83.864 125.562 657.586
-82.351 -54.692 646.717
-83.258 73.176 654.982
-83.243 77.759 655.715
-83.243 77.759 655.715
-82.277 83.978 655.898
-82.564 124.714 659.066
-81.873 42.591 653.627
-80.639 160.712 657.023
-80.639 160.712 657.023
-80.584 162.589 656.797
-80.584 162.589 656.797
-80.349 164.216 656.539
-80.093 158.269 656.196
-78.649 -47.207 650.066
-78.892 26.652 652.969
-78.812 164.785 656.476
-78.635 176.426 655.706
-78.400 158.039 656.249
-78.385 166.062 657.871
-78.385 166.062 657.871
-77.755 39.204 653.107
-77.462 41.045 653.429
-76.705 47.089 653.485
-77.087 156.340 656.800
-77.087 156.340 656.800
-76.775 168.886 656.397
-76.566 162.141 657.389
-76.218 78.505 655.804
-76.149 155.539 656.892
-74.951 24.696 651.691
-75.070 162.248 657.325
-75.075 158.807 657.383
-74.129 23.971 652.216
-74.450 154.791 656.267
-74.058 26.965 653.139
-73.937 31.054 653.122
-73.982 36.384 654.088
-73.517 17.123 651.898
-73.500 8.253 651.977
-73.531 9.639 652.594
-73.405 13.548 652.117
-73.364 5.437 651.754
-73.035 -0.151 650.849
-72.636 -5.131 649.128
-72.922 29.706 652.701
-73.348 156.788 656.595
-73.243 158.565 656.051
-73.260 130.553 656.708
-72.374 14.226 651.553
-72.493 30.908 652.686
-72.833 170.130 655.783
-72.903 169.053 656.440
-72.436 34.916 652.554
-72.410 36.123 652.562
-72.410 36.123 652.562
-72.746 161.395 655.988
-72.727 162.812 656.276
-72.134 -3.141 650.921
-72.267 25.521 652.276
-72.663 153.068 656.203
-72.645 159.173 656.147
-72.056 5.466 651.022
-72.050 12.891 651.050
-72.618 164.641 656.189
-72.618 164.641 656.189
-72.019 4.259 651.393
-72.019 4.259 651.393
-72.092 18.535 652.061
-72.405 84.110 655.329
-72.376 84.541 655.296
-72.425 129.061 656.681
-71.688 26.440 652.094
-72.085 169.750 655.929
-72.085 169.750 655.929
-71.838 163.011 656.001
-71.920 159.710 656.829
-71.655 156.499 655.932
-71.790 125.400 657.270
-71.050 17.541 651.716
-70.816 11.362 651.171
-71.224 164.641 656.018
-71.224 164.641 656.018
-71.231 169.253 656.438
-71.012 170.077 655.615
-70.950 163.979 656.345
-74.412 189.834 689.285
-70.474 115.679 655.980
-70.453 166.154 655.882
-70.038 16.960 652.400
-69.859 4.202 652.174
-69.657 36.163 652.859
-69.167 14.416 650.652
-69.428 43.899 653.587
-69.178 18.591 651.421
-69.085 12.407 651.509
-69.377 167.219 655.594
-68.738 1.230 650.665
-68.738 1.230 650.665
-68.587 -5.024 650.193
-69.232 158.049 656.360
-69.350 165.144 657.572
-68.593 32.125 651.644
-68.785 49.388 653.668
-68.320 3.791 651.341
-68.320 3.791 651.341
-68.644 160.805 655.303
-68.647 168.276 656.744
-68.647 168.276 656.744
-68.047 18.940 651.338
-68.130 38.368 653.063
-67.953 29.669 652.038
-67.871 21.979 651.342
-67.871 21.979 651.342
-67.824 11.927 650.965
-67.968 26.857 652.405
-67.995 43.877 652.977
-67.995 43.877 652.977
-67.660 17.891 651.345
-67.561 13.068 651.222
-67.382 14.835 651.392
-67.026 -0.016 650.042
-66.860 -3.977 649.271
-66.936 147.362 655.733
-66.858 144.607 655.615
-66.858 144.607 655.615
-66.362 43.732 652.311
-66.706 131.997 655.997
-66.706 131.997 655.997
-66.587 128.368 655.565
-66.587 128.368 655.565
-65.992 9.327 651.095
-65.992 9.327 651.095
-65.960 21.943 651.450
-66.355 118.291 655.614
-65.912 -53.463 652.418
-65.744 155.698 655.998
-65.010 8.686 651.180
-64.136 -78.540 645.322
-64.979 119.792 655.308
-64.772 166.005 655.795
-64.327 45.674 653.376
-64.085 164.133 655.615
-64.085 164.133 655.615
-63.992 157.586 654.798
-63.887 164.981 655.307
-64.088 174.647 661.482
-63.325 163.286 654.713
-63.210 119.288 655.254
-63.138 115.824 655.138
-63.138 115.824 655.138
-60.285 38.341 651.832
-60.285 38.341 651.832
-60.199 25.477 651.077
-60.280 33.817 652.053
-60.280 33.817 652.053
-59.860 16.813 650.691
-59.722 24.565 650.691
-55.518 -43.657 647.040
-54.728 -41.867 644.710
-55.308 43.432 653.601
-54.240 186.397 661.791
41.892 158.181 563.487
41.945 160.370 563.533
46.920 160.080 561.218
47.093 159.799 562.754
61.831 64.810 561.373
61.831 64.810 561.373
58.264 147.396 519.854
65.852 64.501 559.372
65.852 64.501 559.372
68.334 68.423 559.579
67.646 160.100 543.016
69.626 56.988 556.537
71.569 59.074 558.956
71.569 59.074 558.956
73.418 57.703 558.350
75.181 59.895 558.529
75.181 59.895 558.529
75.425 73.742 560.339
75.891 57.871 558.457
77.789 72.564 557.834
79.616 64.411 558.198
80.936 75.614 559.776
80.936 75.614 559.776
85.020 78.884 558.419
86.549 75.812 559.082
91.398 47.161 555.962
100.998 87.565 559.434
102.119 42.605 553.624
102.119 42.605 553.624
104.555 42.117 558.534
104.555 42.117 558.534
107.147 42.821 556.576
115.431 54.827 558.089
119.356 84.332 558.562
121.666 41.153 556.596
127.809 98.496 559.430
127.809 98.496 559.430
129.253 101.450 558.999
129.265 73.181 558.601
129.060 65.063 557.459
130.573 62.028 557.590
131.444 67.723 557.827
131.444 67.723 557.827
131.927 71.612 558.528
132.417 65.995 557.765
132.417 65.995 557.765
132.847 104.701 559.041
133.139 67.708 557.139
133.845 103.975 558.517
133.845 103.975 558.517
134.369 100.977 558.538
134.712 104.713 558.481
134.712 104.713 558.481
134.852 84.273 558.114
135.026 76.409 558.115
135.026 76.409 558.115
134.692 37.471 556.150
135.464 93.766 558.640
136.365 45.312 556.141
136.734 71.272 557.624
137.748 100.440 558.501
137.495 59.280 555.422
138.399 69.943 558.220
138.223 55.899 556.530
138.458 59.804 556.800
139.025 86.178 558.146
139.025 86.178 558.146
138.768 75.068 556.675
138.982 84.122 556.897
139.151 61.732 556.770
139.280 60.578 556.387
139.704 80.242 557.861
139.873 85.313 558.443
139.873 85.313 558.443
139.901 87.035 558.387
139.842 53.969 557.863
139.842 53.969 557.863
139.626 72.002 556.895
139.626 72.002 556.895
140.157 96.392 557.964
139.711 45.651 555.394
141.214 98.584 558.262
140.812 58.400 556.371
141.660 95.828 559.159
141.457 87.850 558.118
141.457 87.850 558.118
141.457 87.850 558.118
141.782 101.241 558.742
140.837 27.742 553.457
141.875 66.353 556.964
141.572 49.615 555.610
141.572 49.615 555.610
143.144 98.889 558.257
142.935 84.942 557.225
143.501 95.905 558.494
143.445 57.068 557.452
143.581 72.095 557.495
143.844 88.470 558.395
143.844 88.470 558.395
143.350 80.049 556.379
143.826 53.919 557.495
143.528 64.561 556.085
144.244 86.313 558.211
136.650 58.505 528.439
144.583 63.786 556.860
145.583 52.395 558.055
145.200 59.941 556.378
145.642 76.080 556.883
145.642 76.080 556.883
146.154 88.193 557.715
146.086 71.940 557.101
146.521 71.342 557.244
146.468 54.293 554.968
146.866 53.002 555.045
147.760 71.208 555.419
148.269 56.076 556.281
148.269 56.076 556.281
148.215 56.010 555.774
148.215 56.010 555.774
165.561 93.780 554.201
167.214 61.659 552.612
171.155 102.241 556.717
170.677 97.456 554.317
172.323 95.130 554.238
173.288 92.507 554.921
